ply
format ascii 1.0
element vertex 677
property float x
property float y
property float z
property uchar red
property uchar green
property uchar blue
end_header
-0.29865803448268136 -0.1189608648680035 -0.7120304544912658 165 121 103
-0.24665994168109703 -0.2714307380083589 0.20802502313071275 230 203 238
-0.5780912159109564 0.3905990508549967 0.7472422722456844 213 10 154
-1.0349925125067663 0.21312936538905047 0.3384540175151228 177 169 69
-0.3187185127761145 -0.19863590716439883 -0.06644028879347781 108 9 23
-0.14889543970086416 -0.1545064845235611 -0.8380019031649883 142 148 51
0.57616578239156 0.5398092960184105 -0.4066821296021014 114 120 2
-0.733212163901257 0.2605324382263793 -0.28789398490653306 36 159 253
0.07097658166038984 -0.1596642085725476 0.3457693755350933 165 30 209
0.34737457182800296 -0.36279868923179215 -0.6916819776975277 110 21 152
-0.791469198667541 0.3051896895536026 -0.5944296288920144 58 106 81
-0.25340817714934377 -0.29815701922525406 -0.026283648134773144 163 109 26
-0.9681399029232535 0.09438929839691428 0.2619455119171028 54 127 201
0.044211043522330705 -0.15544308584923586 0.048700083134391704 2 156 29
0.1995231728200651 -1.386296378213325 0.9779561541253471 154 213 58
0.19504666134396323 -0.32620429119351 -0.19547668759380055 126 197 44
0.24687088867459422 -0.05805196951718326 -1.0153422338907472 38 230 177
1.0322464306796597 -0.055270328616236306 0.5100863558578999 187 215 137
-0.3460249238921956 0.7681885271228989 0.14317184444613978 124 141 182
0.3044219172377254 -0.5226266830734774 0.6055726448413504 99 24 34
0.3449090822673942 0.6509231147824992 -0.31404377982078946 248 13 181
-0.24051355923039386 1.151958348841971 -0.5300079113607736 240 32 184
-0.06797485033916041 0.5684456813013476 0.0488624838574278 77 60 217
0.2914768398766468 -0.1997245146314376 0.18502794392375937 231 88 161
-0.6532634258676583 0.829065339809094 -0.05908202256428488 44 201 224
-0.3400891019984252 0.33319154101595716 -0.23035989369427665 81 166 223
-0.6671292357013767 -0.6733587528987777 0.34688657634506626 3 218 145
-0.07978671907313345 -0.06685077983421958 0.5388719029881314 105 133 210
-0.5634129043783718 -0.3653388764324124 -0.19243990459063773 184 127 124
0.047175794658537 -0.021085725645289467 -0.1434435961949538 229 59 24
-0.0308132010478237 -0.05365263814558734 -0.35980219427589644 173 179 144
-0.40649649427703866 0.13725817886196975 -0.44545754149776395 66 75 157
-0.5786776295954268 -0.15614612556284665 -0.07883350808190795 69 127 84
1.1283617486491047 -0.35235013792811687 0.4716303624847474 130 58 50
0.3735941671023159 -0.594472477601868 0.38662648870129984 187 98 59
-0.5919403200966589 -1.3295861189983704 0.3031597621796904 218 102 29
-0.8779452917188597 0.22546723090295742 -0.3420054488686083 180 71 144
0.8297753980949361 0.5342546996580045 -0.22669290192569383 159 245 48
-0.3439188055143412 -0.6070387015470603 -0.2204613161462957 72 237 183
-0.14017774759225454 -0.1823467721958427 0.07835192763618198 114 187 105
0.2892607488644392 0.174827228496587 -0.3820719619532215 104 39 133
-0.7188957369007892 0.6822659240512357 -0.3447245922749688 66 161 101
-0.32614679996750956 -0.26059465615055544 -0.9215347750783243 217 196 37
-0.23898700202024334 -0.23982790700397383 0.31017914917175626 150 182 131
0.349228574553668 0.00188544454313467 0.46592418705715183 29 128 110
0.169982491900631 -0.007841055801277384 0.08046408414911149 83 148 82
-0.09532674679069968 -0.19742475701672516 -0.13386676844698323 60 187 54
-0.5640056657350034 0.140220852658148 -0.49656180546479034 205 249 112
0.4208156320368182 -0.12472929008047443 0.02474749082504537 207 42 203
0.24691838814047817 0.32165723253146394 -0.7853117043167264 245 131 65
-0.10345183808198587 0.4400894560403911 -0.8490529097161272 41 233 82
0.1936402376975317 -1.1277821147010947 -0.5112534218178018 126 110 110
0.01931527592009405 -0.8283575511609769 -0.4927553688420753 195 238 162
-0.7359175037317934 0.8240674661037798 0.08211387774366698 244 48 143
0.2836451389263347 -0.11133755025757724 -0.17671587437859954 174 182 192
-0.8082370943255163 -0.1459186813739314 -0.38074610590581165 84 224 33
0.42896196214616816 0.5705509333287867 0.7332893577870888 71 119 150
0.426275969730616 -0.29932696846149304 -0.5579484929801972 75 231 115
0.38333159082254303 0.17814640873614446 -0.8842692253385154 25 208 246
0.17774089637188453 0.4072599112439332 0.02946279459081498 88 141 148
-0.09252683550467077 -0.40382424380817783 -0.7232673497816939 204 38 214
0.40014897467001376 -0.1545572223858544 -0.11673333077184636 184 8 144
0.8663605934595666 0.3422505534295952 0.18541250064055104 7 126 152
0.07103090259361783 0.7599974303828864 0.8597946537080973 161 236 75
0.46475255573976404 0.29111229569896213 -1.0473015356030724 215 115 170
0.06186095711675329 -0.065053477096852 0.04697661469278436 206 184 202
0.4715230436612589 -1.3698385835947782 -0.28465602673509255 162 204 231
0.13495217747038069 -0.23342277302638126 -0.7084530565631297 230 83 247
0.4344817434483977 0.13843595292306402 -0.4855522852222423 14 157 126
0.1574086022579119 0.4107928560248979 0.002646323149680427 58 136 16
0.4002824017154984 0.039130087580830676 -0.19761449132717718 141 217 35
-0.5797102581999565 -0.04296538348580636 0.09714646902288583 82 160 91
0.43791638079366546 -0.05755373424361336 0.2287078031104954 105 86 123
-0.4823060068668642 -0.39131457791376256 -0.055194649513443876 95 36 50
-0.5273142319925069 0.4101239186623406 0.23156516465930355 20 119 215
0.1395478821962267 0.16945206260797227 1.0105217807423987 23 167 107
-0.23443209398339782 -1.100720642750279 0.0996500984482326 222 92 177
-0.025301770480832948 -0.25875952125520163 -0.48941492967938494 101 138 197
-0.21959476090107397 0.09066921460891064 -0.2514083503212691 246 34 134
1.2062268397718743 -0.480252190816574 -0.3965586813538358 33 7 190
-1.1443100200072642 0.1257422075107685 -1.00820331389988 250 151 18
-0.2697273166872507 -0.13783526728027848 -0.3548639829234441 15 80 97
0.8694363387272555 0.49719719565774945 0.6595684381507878 0 214 119
-0.4412094092749593 0.5642970322572842 0.2480004731719811 253 225 127
0.38570297433842277 0.5147194143913836 -0.45438162297952656 159 80 77
-0.21215881048895074 0.43129800566422555 -1.3278095464874664 33 139 20
0.7566640412866026 0.276566032103792 -0.022851980330117427 113 82 201
0.11025382787858665 -0.5149676416544883 -0.17497168229455237 97 229 48
0.5501421691101869 0.6490109861631106 1.3481120262817898 237 151 30
-0.03696233314020757 -0.3292764834025019 -0.2571169829699944 128 68 191
-0.5090209376436824 -0.03892737797042538 0.19136621500613407 166 15 106
-0.017121140265976935 0.5481734228328993 -0.11710790067226827 226 103 189
-0.17372532624928164 -0.2906342384301626 -0.8163172631172476 28 221 128
-0.783883862154227 -0.5895789653188439 0.6507140358323804 241 137 196
0.44763013644496497 0.6874820331964949 -0.6661058272972509 247 185 147
-0.9843123448930101 -0.33002816006704144 0.087909476648014 93 10 110
0.24934513745491374 0.5239860779840264 0.1421398354036073 105 209 48
0.8713343903278156 -0.11130284047416024 -0.4565396090208982 189 9 226
-0.8406091077472168 -0.44448567904772496 0.1210589804925615 170 107 67
-0.4443601286768154 0.46837123176762857 0.7061638530187215 47 149 104
-1.1847934526133015 0.43202615024882396 -1.1198020293308684 189 231 75
0.20074952754514375 0.6124352820968298 0.03242805317178809 165 107 10
-0.6398445866021197 -0.2927156021388863 -0.13082272285545035 156 92 3
-0.09112239189497147 -0.10144842038333353 -0.0549413896546569 120 23 160
0.10674002445508445 -0.6042868268666106 -0.12100991493510975 134 127 238
0.7591305851778527 -0.19232271157125888 -0.2219180465775989 224 182 147
0.5390986518571189 -1.2795923331720482 0.5906893006441429 64 2 30
-0.31595187900258365 0.08196428622629331 0.04816067796059841 81 50 145
0.4712340596101969 -0.13379737311767384 -0.3390128907822252 136 99 204
0.6489228953255494 -1.18208690857059 0.010167090852621624 186 175 128
-0.6739627113145602 -0.3807866941282795 1.0056283407315685 11 109 127
-0.022297713227928513 0.09753484857569059 -0.8907814278527957 114 1 166
-0.36452232939734786 0.09827870036439246 0.17737884655660904 65 11 128
0.3084432771966394 0.004313949458788161 0.26350210422732984 234 7 3
0.226890956317842 -0.9148702055022657 0.018502860955074765 149 138 4
0.38395120386635184 0.29493991036725975 -0.18192940498539495 26 213 115
-0.4028132537696839 -0.5591559621608161 -0.06552700577070616 31 39 155
0.566539939779861 -0.975902050740801 -0.329945864864749 83 6 162
-0.569901227713387 0.39247876062025006 -0.27715481328565045 8 28 40
-0.2353188290773957 -0.1084747849683245 0.22269662544739866 36 194 23
-0.19619449907481837 -1.5230715273999633 0.27165594569375984 37 113 35
0.21952147883602127 -0.10977051416560663 -0.5420183103359673 190 124 224
0.17589005534067914 0.18961776676779338 -0.2350164413504374 9 218 39
-0.10836573528776931 -0.4650782512621606 -0.08929454604366457 236 83 130
-0.7752146725417405 0.20865941051591774 -0.47218424541214693 6 185 54
0.11905157391615606 -0.7029814581339496 -0.29502882293476984 233 168 72
-0.055244702532963916 -0.8303499059346316 0.05757393657004608 66 43 204
-0.18957378143996137 -0.8711780989046153 -0.6516213770561579 111 70 242
0.30256004204108333 0.447777992775662 -0.06595431988998353 204 149 204
0.20238090602024875 0.11192178165645535 0.16481149106386903 30 171 82
0.6429920035401465 -0.753499199107136 0.3382303661808116 175 245 198
-0.1910044777889101 -0.11212946712582017 -0.15112486522753502 144 190 119
-0.18757355833064193 -0.6130980958915095 0.09166959962880063 71 10 172
0.8354715163944286 -0.028066510224378557 -0.000692521367547863 36 117 170
-0.34364951857833176 -0.05873727320905574 0.23308321301701537 227 155 55
-0.18512122035217146 -0.22690202052600053 0.2016322700816234 120 170 49
-0.4590023849095227 0.1262483135384362 0.41016089863071087 186 194 133
0.6799742708397422 -0.045191003638473407 0.6837986199033568 218 57 137
0.517204943240759 -0.4981063201855331 -0.6089692557965755 228 179 205
-0.15248181892721022 0.5144677462974271 -0.03614350378000245 56 146 82
-0.30032877882889425 0.7761215900242804 0.1434522440016732 168 133 159
-1.1602971378953708 0.15858031314634438 0.2600203072854339 157 187 203
0.1128043272355519 0.22485605011599627 -0.03363780446149087 15 241 103
-0.6591979348223671 -0.18535200161022672 -0.4728078977781457 43 235 199
-0.4663704553971889 -0.6315341745511377 0.22624454631982321 107 152 57
0.04894807270631355 -0.22408268134035403 -0.32466896386519406 105 102 192
-0.011711552510726085 0.5395973640562446 -1.0021078577494575 110 192 201
0.18843826042544637 -0.2728559870088912 -0.9422929224897238 98 112 132
-0.9728515415819794 -0.4563917470676459 0.10975477789652263 0 49 216
0.1965314669900458 -0.46949078633889263 0.5085104957066223 194 19 161
0.7114917482580531 0.1980432924782801 -0.2957013339040554 5 136 41
0.5622095922551841 0.37769784783166915 0.433703705677459 217 156 16
-0.32823183748576573 -1.4172772526373512 1.0583955107418377 163 227 187
-0.8054392017249669 -0.017884035930110564 1.1903726756098751 29 169 155
0.165288378137187 0.47462323677911783 -0.7511982846908564 160 202 77
-0.8888334773668531 -0.26635139598977725 0.54537486721725 90 51 116
-0.17312472382365499 -0.39731816053574937 0.09898364497248373 104 21 61
0.5409676092386326 -0.7224700995366858 -0.6052714970616758 30 141 47
-0.3943346272546831 0.5473191873560457 0.11741076297436595 83 208 145
1.0660767052852218 0.4682228629155579 -0.01754758843483519 132 240 111
0.632538919044383 0.10574850636593901 -0.35246067625372246 225 147 103
0.3399874221225512 -0.3481633269305414 -0.14519855040193339 88 230 144
0.6638913479789915 -0.050640743108699676 -0.40157069367081416 64 132 63
-0.23216884571774582 0.5108952927943365 -0.2762703367083646 61 32 175
-0.19343542342532327 -0.25514636981681427 0.09196274717015497 199 82 104
-0.19274488018780414 -0.8009180244862685 -0.44359047092252013 202 4 84
-0.46639452075321913 0.6216596922275774 0.4063370210545212 78 138 228
0.293629689699913 -0.25267915863220497 -0.40789577099698565 10 214 142
-0.2537588008286785 -0.525940051275837 1.2486001957935036 149 244 32
-1.122660824185701 0.28200426753690455 -0.6422761489962636 70 58 119
-0.05217174574734632 -0.4940009712468672 -0.5888144812413154 147 185 13
-0.5700981504674808 0.8774930768710293 -0.06649421115479599 108 235 117
-0.38285109723904315 0.2778934820414365 0.0051746572831496765 208 28 73
0.3600168796708264 -0.912128327968915 0.1518019522310007 187 158 113
0.38634741855119087 -0.8307991455572818 0.22409764221165623 170 196 228
0.8480907864140803 -0.007428851677351358 0.4107029685124056 112 163 97
0.33528522515545495 -0.35375284875528845 0.019883367293247585 236 122 104
-0.7834973554308012 -0.22565151855126306 0.13284398748311796 239 0 84
0.3615502468688991 0.012306062623955808 0.3599918650715827 213 115 88
-0.5514531064776849 -0.0508486372774358 0.009639692256538608 149 103 84
0.9247956233398182 -0.10708332810004212 -0.24950831899709144 67 79 235
0.010675611921774304 -0.45955672243497186 0.09637692453260809 244 25 187
-0.18252760827312883 -0.8956637740205918 -0.029293275566930423 167 160 8
-0.15877154696509962 -0.8162116510339916 -0.033567077307260884 69 190 126
0.7446779810372401 0.26065187413785684 0.3059635963655789 6 134 216
-0.6707483627915213 0.2384491844611112 0.07422479069003904 223 229 134
0.2645226191672158 0.21131431085441282 -0.6798903627519068 119 62 220
-0.020700405778983716 -0.378935430212583 -0.025042047142411046 203 220 57
-0.44870046345091524 0.6562351835704981 -0.42948619422217116 24 178 232
-0.449471078232768 0.037293203271776765 -0.5385495347019974 233 134 163
-0.21233165121643285 -0.41498229876898096 0.7055860319448058 28 70 137
0.3929019134155863 -0.028734759232697322 -0.19560852608700813 224 123 151
0.4704588072875567 0.20260204016144404 0.24902620234142836 14 245 125
-0.013096118672125241 -0.8441150138857161 -0.05623299127977636 40 86 130
-0.26624495960453387 0.32252763672993845 0.5059212164970945 35 50 233
-0.3289755223805843 0.23419261713852582 0.8679394988428566 222 31 71
-0.3338563602852795 0.8409608700365688 -0.4262929235853235 162 66 0
0.011479877803975722 -0.0055728059209206255 0.005749449935031187 178 49 82
-0.41883902095397263 -0.29559155188221486 -0.3338601431796997 72 38 34
0.1634812977022287 0.16501755725515582 1.1129721658691294 36 246 185
0.6854945031455607 -0.25492162106923955 0.16243480789809303 239 145 84
0.49855899039587975 0.015300912169258904 -0.03482078922346779 41 123 125
0.02578747138494452 0.4336383144042139 -0.42416026140261626 198 134 49
-0.16283473441008708 0.23521657242324093 0.15572353577707776 207 37 134
0.11979137992819566 -0.1849005831519016 0.48626789457126846 10 94 171
1.0669341236022687 0.2032077468381031 -0.09658835077491995 35 133 137
0.3778701444472713 -0.269566318376495 -0.3748451723514483 231 118 19
0.0164043738068559 -1.2913983164849723 -0.5769751818260047 37 70 203
-0.17398092796042292 -0.6766944290738567 -0.5163215509460648 65 155 19
-0.2183741687290037 -0.8214826467653046 -0.20303589812991596 51 157 25
-0.26763508226642224 0.012702604192508009 0.5770920152470096 182 114 71
0.08625220824643295 0.010531010671031812 0.049727228515355874 222 171 16
0.11369638756056423 -0.5083693243048845 -0.05738766238539909 170 50 234
0.15437562091830656 -0.6853799912715303 0.43282646140792663 39 157 61
0.5406880172290949 -0.3156879942246944 -0.12066889572655227 240 82 150
-0.43909517140503657 0.34969024179390856 -0.5306111437229546 33 122 155
-0.11123850512146015 -0.4294599539038358 0.025477138505644748 196 142 179
-0.8971146357448605 0.6632308211828467 -0.482303212103132 219 76 86
0.029947341558138024 -0.1062615223851546 -0.38105725596124906 7 141 247
-0.4438900683179677 0.4681992717762298 -0.26282029655096983 187 253 115
0.13558509231865545 -0.4007484426971874 -0.32359071592388033 190 41 107
0.23612357504392437 0.46520424805555816 -0.08765820116350997 164 114 7
-0.7109599358202184 0.9989780398750023 -0.42827465411710475 80 172 100
-0.7707936998358937 1.297212293884076 -0.20201614692546857 114 218 68
-0.7308663441307041 -0.3417198833943409 0.18377244801113451 157 215 205
0.09515577879696985 -0.425864598626795 0.9113618000639797 60 13 70
-0.26078983899668656 -0.592343295205776 0.48034669923032985 44 7 77
0.6645314232698412 -0.40874654880811323 -0.7006736465196552 132 165 96
0.5152191337078024 -1.0236618065289809 -0.6133108296983077 52 145 191
0.4837230750251175 -0.027676274011194785 -0.13196867429634393 177 218 67
0.17640830324718917 -0.07638721177270434 -0.6493433610815451 128 124 82
0.6380376730030938 0.6625070264434076 0.10266628188897985 175 34 205
0.022567007716005137 1.169812403010029 -0.1382164225079186 9 98 154
-0.12978849091701972 0.18224062462025278 0.7356609780711691 108 167 9
0.7963853772087418 -0.12928631583838562 0.15416562297967262 221 19 73
-0.6890417335320386 -0.15598805395810647 -0.42014519773965325 74 3 23
-0.5034158761494919 0.8407883581336638 -0.39614333090307247 217 197 188
-0.26580295400572745 0.1829243939584291 0.6489126334867927 175 19 76
0.2405575631944177 1.379677557010791 -0.037333989125574785 1 15 9
0.12935822011487302 0.13780033699202818 0.7175246933945773 50 14 4
0.2536194755548076 -0.05811485019357455 -0.47374429745343977 62 203 14
0.12222172798081629 0.7006724156459798 -0.2051908968289353 251 167 221
0.2644718092082911 0.12307389434242208 0.4317598291906573 168 198 76
-0.40237687031893465 1.1733235152632808 -0.6395805535141291 65 169 143
-0.18277554499301865 0.46904627045282277 0.14836658624705668 128 45 58
0.4149930795405516 -0.24805116699128119 -0.037402491340170534 140 104 245
0.006115991819408693 0.7846298072679522 0.3452145121915245 140 110 242
0.3983360541823357 -0.3289630462683976 0.4844413192815254 23 69 88
0.11279083178440176 0.6945726578389637 1.007030077459234 217 195 77
-0.15338288801350228 -0.20315156522253128 -0.43202249555118477 222 15 125
-0.07178975585816028 -0.1910127244751918 0.17975219978550508 166 79 17
-0.07228340846686797 -0.1807996403908099 0.5322925680639259 65 123 81
-0.46894011557572585 0.21655397657567182 -0.2029708635942417 105 23 3
0.3621842524349822 0.6926307733611152 -0.15154912671203635 223 19 74
0.22051645363657568 0.08939643286658992 -0.3997111997715483 169 215 81
0.12039375487096922 0.14456025263940608 0.20643541022308734 166 120 13
-0.09919944841002287 0.047096150155073284 -0.5738054724215677 104 7 245
-0.17905703773992837 0.277981339854899 0.44623694366576516 194 86 59
-0.21115741206263536 0.05235701471664216 0.1140266625620336 102 80 94
0.10073997335221643 0.2703867926501951 -0.9090388151917848 234 103 189
-0.024662035073786295 0.11951680062338245 -0.5001651744768527 39 136 125
0.836992853505355 0.08077963361908398 0.7817023725144647 150 173 219
-0.3952615109165386 -0.4536500607626635 0.11212611048284095 58 97 14
-0.8393441814143283 0.10748279531304676 0.048609616001459015 159 238 101
0.5078326407710506 0.35052067058254854 -0.208738674942517 247 152 53
-0.5487483273851224 0.8561526106716483 -0.396057510282575 135 163 169
-0.5227622785347329 -0.5424280297307226 0.5586526577683323 162 48 53
-0.25945010221242604 -0.3768522330903004 0.06884491295167366 61 186 127
-0.10347235527864551 -0.33904773039312347 0.3769957334892398 171 203 143
0.5326577460489974 0.49265875446993346 0.3834598348305995 120 102 136
0.2013127655650176 -0.8879439999809144 0.8346254031884843 38 200 232
0.15099460517877647 0.30407821380032074 0.5574811614737011 207 209 211
0.7166762514409959 0.20919900565459626 0.2177730796478268 44 253 167
-0.2996121387298597 0.0165448755693801 -0.42708063040717725 107 226 148
-0.35997026607094734 -0.44678720115709564 -0.07801194549864368 253 191 93
0.5245465939600051 1.5854873866450898 0.09474981877395673 189 186 79
-0.67420654387806 0.632491664928128 -0.15039193823801356 225 35 93
-0.330304296988496 0.10492473896152765 -0.6203122997781138 162 122 172
0.11123158200430339 -0.044187761599577484 0.04918895340773783 254 19 193
0.19070812710458543 0.0337461286204034 0.008169042056446247 208 71 65
0.14215725949897226 0.20770031308556341 -0.5157412301576288 112 100 129
-0.7149956293427242 -0.030819026086107378 -0.716367744967054 53 125 207
0.04376573546083543 0.46937343784115504 0.30355583595802293 225 170 73
-0.5240852034127366 -0.4301312259787594 0.1641506475003777 222 107 59
-0.20064890256675502 -0.15832764752605347 0.29845324062397693 34 245 22
-0.4936433467288262 -0.20061735495559122 -0.40004123804230063 135 51 221
-0.5215647490176778 -0.42853909433558235 0.33873108467320584 49 187 42
0.02591019474121078 -0.4395803144175374 -0.11555080379649826 239 169 105
-0.8194036535610889 -0.36665640379183284 1.0747872674336434 245 133 97
-0.0451219248328753 0.36582946351519624 -0.03274418757224149 41 183 152
0.17408461762090433 0.331629044839587 -0.5523082987632354 56 63 56
-0.015468128636979469 0.7894325972082441 -0.3977502750266455 126 12 73
-0.28321992686610964 -0.15384563868350087 0.13451203658812333 187 158 208
0.26245893182294133 0.6337058274093283 0.24974911673432973 189 5 145
-0.031026562899167016 0.6295835648054069 0.3520555110707911 111 92 253
-0.7478397581285081 1.2631841201779992 0.8849606940983669 167 64 135
-0.08410711138353705 0.18895505086923753 0.6621793749979196 24 190 88
-0.08610039634844131 0.3651758951885097 0.5522892367857383 43 41 3
-0.5074129538672205 -0.30116592679143106 0.46070419890529063 198 185 123
0.23040723857441525 0.46189828015697343 -0.06628400732685902 78 99 225
-0.1445026054771165 -0.9993197377916864 -0.5730002132537216 30 7 55
0.023533047329246846 0.4122786097821182 0.26558918326784764 132 1 26
-0.06412098701385101 -0.13588578324534833 0.10858981631914007 177 114 241
0.03910559054607609 0.702272757469856 0.07322038523912493 232 70 96
-0.7406229810986492 -0.6362790675161585 0.7593796684817901 234 147 94
-0.5855802307250402 0.3822487265167668 -0.1341863676046906 204 235 171
-0.08487914695124274 -0.06706639138421006 0.6106924797295992 58 208 107
-0.09642091427198234 -0.016659641422576477 -0.7654017486997463 178 124 239
0.10334525585400164 0.26552125348902983 0.11957279032689351 17 39 49
0.6989481305433677 0.02758567739011587 0.1494887280595088 56 60 38
0.8242520051340895 -0.7750070946790739 -0.22791267389968442 176 55 60
0.7130793760096331 0.4680645741555412 0.3391900494202352 50 101 244
0.41632536973223916 0.16353310456051104 0.8157987137661358 93 75 17
0.18887958486535894 0.11993355294763929 0.07947933706282163 89 59 194
0.09643197777519301 -0.5785086404079339 0.38533652723167167 28 36 71
-0.06521986689166366 0.910957548930203 -0.037825235294211446 73 215 201
0.2104591420878283 0.12330109313066721 -0.31277851755462666 147 73 81
0.4960684142592529 0.9525318202800088 -0.007388609829922389 151 188 97
-0.15023939279271115 -0.17751436552768704 -0.9461809466586707 129 226 165
-0.08890657185150627 0.12549905800416197 0.5273789625901414 136 18 44
0.48002387057496393 -0.20824954121834624 -0.13841149738694417 51 158 27
0.5619526528072195 -0.08673194853643956 -0.25501476987780847 7 91 183
0.6962592247171362 0.518792833525317 0.009395895887128901 176 202 177
-0.29688872388933374 -1.0059401596223545 0.29485180278736195 156 123 53
-0.4481848612760901 -0.981366004570376 0.792410263674509 144 162 31
0.32398389550494416 -0.5695040965584827 -0.6072006914796295 144 24 139
0.4354808910858098 -0.4389853082679351 0.6480749337639417 40 30 28
0.30822965631307764 0.26829826028341175 0.20234772780715016 232 152 63
0.09572543601195589 0.44025559958855526 -0.22704018125780256 18 136 36
0.04297598671719234 0.37597329383859784 0.2814948592930639 198 126 185
-0.5974934026343302 -0.250204833652132 0.12640175270957726 100 179 174
-0.20400735451994845 0.8873292804866666 -0.19657659737705643 143 215 148
-0.08110922378834542 0.38471508908865193 0.16526637161745789 147 78 237
-0.07263722860238461 -0.37824676444037414 0.1507570286983831 131 99 138
0.5195482201891963 0.2395476120491143 -0.3890917607280611 37 67 78
0.8683874784883554 -0.7232889450179472 -0.7913428209013945 131 177 73
0.4802786122286142 0.11292023930134505 -0.27474927315202013 34 142 217
-0.5492853637776648 1.160399919640149 0.058545436077720975 106 121 73
0.26710058542288573 0.1589425486190908 0.21740397886557897 206 30 43
0.27004723026240296 0.3662120048774381 -0.18761120038033635 254 173 139
-0.1458209931759223 -0.8705114041794507 -0.3901522032507697 202 254 48
0.13555639822335744 0.5225116877513453 0.29951976318809204 201 87 186
-0.17034617193896523 -0.6315864560425771 -1.3886795727137167 180 254 28
0.5758669873903995 -0.2946144932550749 -0.22423250310202963 0 190 145
0.06578698395403436 -0.7027800236959449 -0.17489109005576844 176 192 125
1.011735974884987 0.25269346928867137 0.1796245782567282 90 196 96
-0.7912472389908792 1.1218009472913202 -0.7113974543131714 158 227 40
0.9611623777221993 -1.0575280075939038 0.7026827193622102 2 65 203
0.8090271345001128 -0.4122045606639173 0.21129018613644138 144 241 139
0.2737402860523325 -0.40689724161565294 -0.7245588053684652 67 195 167
-0.6588586715703827 0.2705041099799038 -0.04255780125970287 209 170 115
-0.2821505166510802 0.4833840055832301 0.25403395469573886 70 14 78
-0.3777313631828167 -0.6006007595086946 0.26163086934403845 11 109 57
-0.26879168427903094 0.049602431265751215 0.7881494863138588 179 56 20
0.2511641200373898 -0.43113349987661836 0.08033059490988641 213 15 191
-0.4763224764076939 0.8042610779743619 -0.2807893748016104 237 27 142
0.10363537348680932 0.153866287339716 0.07962523418685122 115 203 158
-0.9792744775682694 -0.7232105319916643 -0.22617513778454584 70 0 123
0.15971591666576532 -0.06888960714288533 -0.4785737365755084 227 230 31
-0.6742121595608505 -0.2007787722496718 -0.23423802233986157 219 8 23
0.2564182287963783 -0.16315923107915906 0.3013538282146648 246 98 18
-0.2973248848602027 -0.12797883460713416 -0.1740231898213097 119 11 4
-0.39118348345104487 0.3125593282168651 -0.4067979985472535 143 53 158
-0.2608207549853095 -0.03655982297409862 -0.6486898279783699 85 33 251
-0.16246747916024956 -0.3556531798713943 -0.1940770962411248 63 15 71
-0.02996400133554531 -0.39995681157033236 -0.1100378899101778 64 76 90
0.6543343761760896 -0.012899279127243556 0.5726310865096124 205 15 90
0.17324722100338036 0.3870803049094082 -0.38722948438541294 26 250 36
0.05245358254275636 0.06695646130773796 -0.3063128694374678 122 122 199
-0.4114141621471409 -0.7451326939536491 0.748069818475816 69 188 6
-0.4862014446762488 0.6731105366111501 -0.23374658682892674 236 25 122
-0.43124664986236694 0.31125957015249883 -0.31559597087342856 44 93 163
0.28422945946213846 -0.1664058824261048 0.24021224805889338 36 73 173
-0.48409303195355247 0.41567552899238414 0.2439863413315023 215 151 133
-0.4598253450313309 1.3214678605073709 0.270061513200247 27 37 244
1.1452335352652694 0.8001339093743796 -0.0944173901088919 0 123 192
-0.20613587730227145 -0.2017295917104006 -0.9150142752139051 53 117 125
-0.34791755967477367 0.12338301198998529 0.7629787804424042 66 224 235
-0.38638594148910105 0.4410282996815053 -0.6262966707516595 191 2 160
-0.2931600126055662 -0.22882029714476299 0.18590554074874674 59 68 46
0.22865482336040563 0.4811708724071726 0.3854184802024683 145 113 49
0.12158410770124586 0.1951824717543112 0.7942653455487663 237 61 198
-0.25546309061613154 0.38736415953358105 -0.9040719632491258 6 46 208
0.2056671214488043 -0.2416247712395537 0.0012855912157550126 136 164 109
0.5200431225268516 0.08232190476319881 0.44259377060446364 111 31 43
0.7368824075692024 0.19454698443286028 0.5855205323102441 234 116 120
-0.16328048883960386 -0.004104941134807022 -0.261309708199239 169 3 135
0.521488797323188 0.20704567689679754 -0.2536172309474613 225 106 105
0.0773344168231661 0.5207841944092909 -0.019633995518976592 115 218 155
-0.4744664054248817 0.0659558778937061 -0.9902827955344699 190 183 12
0.3843853221997375 -0.21066379366234025 -0.23465536813955337 249 180 147
0.43784783938975336 -0.6825814386125844 0.9735493214101789 11 234 119
-0.24012102086911166 -0.26162547169244754 0.5106123715835815 232 106 147
0.3543476365552133 1.225614859537538 -0.10560299181576 227 117 45
-0.060203319332204866 -0.7396579899816268 -0.16605113867441257 108 97 186
-0.3607156477858779 -0.22438350655274958 -0.8720938782769776 214 2 126
0.830303779947257 -0.7083017412128203 -1.4011013991958565 68 41 169
-0.5942122107915097 -0.3019197763980755 -0.5747770316285591 213 138 49
0.5491517703662562 -0.06891958929804692 0.012692802203229494 191 132 205
0.3051958821527064 0.14300626348905898 0.4892836487230215 246 106 81
-0.5547387768180726 -0.27375905033971587 0.3329835730347689 71 176 247
-1.267277231042115 -0.6875922396586204 0.2504961160899733 72 117 146
-0.24012451749746272 0.4680537750548488 0.40459014842658136 243 63 245
-0.5990464400955191 0.2033285437334406 0.6008489278337532 133 185 199
0.07371720082548595 -0.4887324386229346 0.439694970956685 41 248 248
0.31771226327699775 0.27130539174939816 0.35796944671849584 220 215 83
-1.4973064301138095 0.44046878054048577 0.9040659052894877 217 226 67
0.2183192373146465 0.09636449824986341 0.34821933669571964 43 193 147
0.16911273684255765 0.325890630850308 0.0007355001227054032 27 101 84
-0.38335242726845015 -0.5021613561073067 -0.49909586411593204 168 107 165
-0.6865212754754476 -0.5338710055095532 0.8806330637099316 203 180 157
0.37704783182812135 -0.31251369534233564 -0.19519634699275404 231 63 129
0.056278765453227145 -0.32777251474217906 0.03375842858716243 192 57 53
0.388802068951456 -0.017871366774086742 0.16800787133099607 174 199 226
0.44324576967980794 -0.1360658780091041 0.14239529956718158 114 182 43
-0.15468879644168068 -0.0142644349172082 -0.16236513254148 80 161 37
-0.26443492677805763 0.08685592649351172 0.2832726579091062 243 32 198
0.07315222300052213 0.249363479155966 -0.3689658901206149 81 186 103
-0.6018675960998897 0.20852175148380178 0.3439406955873773 190 229 152
0.024928633299911324 0.6740178902123594 0.4538493989939493 41 242 135
1.3402854203845003 -0.10040425699783279 -0.49942439804768407 61 104 183
-0.3700683953697568 -0.28274890318732815 0.23801569171905726 238 231 35
-1.0790342819806285 0.6592755090454183 -0.11964829557117207 222 150 104
-0.12339677889437589 -0.5396715830124976 -0.057112775725090104 118 202 215
0.006619883833766776 -0.060972463800138633 0.1695296279712152 167 14 206
-0.2948160209755149 -0.44790788020541356 0.27416406524898995 6 98 113
0.049333726907897835 0.0985905275986837 0.5295136272209832 129 65 106
-0.5112821956303428 -0.4276202286254321 0.6286098254144971 200 69 207
-0.7414416787870213 -0.6547060731655071 0.4089309155924979 3 36 235
0.11910009601101931 0.052616068529637926 -0.04582970405019159 119 12 155
0.01563377351378474 -0.04605605734597796 0.6777213512972091 116 22 88
-0.19907406437503755 -0.08068676813888959 0.8972244026125368 156 160 226
0.0137548510149179 1.1160081947625888 -0.05248985050947678 125 26 28
0.6837074912300792 -0.8276720191548389 0.07682223040783319 106 47 234
-0.7922367815754677 0.42222715330229316 -0.6064339081045124 54 95 130
0.14188477719167275 -0.14109793834521756 -0.5791015925920144 84 169 154
-0.8096799914487712 -0.2555202317900549 0.8703147229476654 239 212 153
-0.14674252744468874 0.458610771057928 -0.028521433831094074 113 156 158
0.4383633868452262 -0.9134556891522588 -0.20159415342476666 68 45 132
0.47470276189660937 -0.08162747441658937 -0.043227641355523566 78 98 0
-0.21523095594289648 0.574689691683562 0.14875717697747295 173 14 187
0.022011138087673986 0.32152727266964637 0.29411246455896833 53 42 153
0.1062935232187683 0.7735157484954223 -0.03014376681955952 250 107 221
0.139040523983972 -0.32147627667644524 0.0750576135030646 15 129 173
0.7938807618726837 -0.3216288008943694 -0.5667964128192294 95 33 3
0.4983798214099078 -0.07438307611683963 0.048002102484885005 98 189 252
-0.022556651846667407 0.03956086196476754 0.4252653417617191 118 75 88
-0.41956209529963684 -0.5058870420527443 0.042484068518853835 23 114 159
-0.8032198447249164 -0.6865267680209642 0.9333415741658135 159 3 161
0.37873416503070195 -0.005028235934507269 0.6190034679792199 169 128 240
-0.5202996150425725 -0.1578015616929291 0.3117268047121912 65 217 44
0.4453358407156974 0.2564584234138882 -1.2706194038441123 66 52 225
-0.484041058832289 0.23853404617843263 -0.17797574652340317 202 114 96
1.2701158103795858 0.46327915048354823 0.2790409403093329 3 178 246
-0.5584747768733618 -0.01764836980145778 0.12060198210947626 198 59 67
0.5638918150639012 0.44056554854981617 0.5164945972599728 107 103 59
-0.461956007905001 0.7060758491493154 -0.6902153761536346 201 200 180
-0.2679572808330809 0.21538556747282073 -0.07494579586656966 1 233 86
-0.5030184289601958 -0.4107749128015663 -0.7741271614245212 7 162 188
0.26598731950359567 0.6302844225210746 -0.05019675170068301 171 99 219
-0.2001744075067117 -0.7361614642332448 0.4566009621260888 90 137 235
1.1056521666197465 -0.8987279021834488 -0.5317164690773034 185 24 198
-0.33979652127207205 -0.2821589548412445 0.1136729750717405 229 210 121
0.8071247736401137 0.5042986434300518 0.26379869138715795 210 19 64
-0.36196435202930105 -0.5598141168402272 -0.39838765315315045 221 10 101
0.7740334006893693 -0.030871650728950536 -0.2234181268313106 219 113 21
-0.09187786512499613 0.41230910981923385 -0.6564248372748959 117 186 80
0.7074370679612112 0.07823812847314948 -0.10817198914786305 231 239 42
0.2214230568733695 0.10919853656496852 -0.17209822823369061 23 76 119
-0.12635533602080334 -0.4344312734329761 0.3281953754296512 40 61 237
-0.2659969047055809 -0.4781292112161414 0.08293176132676866 182 152 180
0.6645706413727767 -0.024172311889909807 -0.30405062847584496 0 37 176
0.2019480104179869 0.968356231201276 -0.7259527647158737 182 217 149
0.1911013938926468 0.1025433126159269 0.5807669017795586 142 101 208
0.4954545868424226 -0.09335455590488961 -0.8422586277124414 217 115 95
0.4032818839481298 -0.41759634509574156 -0.47337020547859476 12 201 171
0.5741752903455631 -0.45542518881932625 0.7014223700501216 111 128 228
0.1679223607026565 0.1595592000431412 0.15363239025279551 223 45 216
-0.8192118128708961 -0.8881943081732879 0.1077765268943424 129 27 79
0.28400367961321005 0.041305516078100506 -0.41076725850976376 175 227 27
0.009461051941097368 -0.041017076572742076 -0.47857904913770516 155 172 70
0.5069860770560807 -0.8651380307750429 0.2943712034037532 192 26 61
0.19216170260562265 0.5048559274058572 -0.5026559361744294 0 128 67
0.0507035733341055 1.085582474659083 0.33103714449985316 19 224 50
0.05029060436448159 0.2695806370570983 0.04308842119006001 144 69 152
1.09544900661992 0.49181809789458975 -0.04280747711524854 166 185 75
0.12616571569226062 -0.19539899804050678 0.6049250632051525 12 218 247
-0.7030523856955054 -0.8023692649304935 0.7293573748379968 225 21 200
1.0765598962852914 0.23415245384479585 0.05636897061786863 123 161 155
0.32863384515238864 -0.32352676319137963 0.08562177257610624 136 172 157
0.019454352928107516 0.3132821253726803 -0.7789992640916982 147 36 220
-0.25351738488266873 0.4224978015004186 -0.3377969138150315 192 245 201
-0.4966806877115677 1.021036074913477 0.01905900008970018 148 233 166
-0.2894590699716039 -0.8461852187370542 0.3646731731402131 79 44 154
0.3495680768593469 -0.14937980028496797 -0.5511150954535453 187 210 72
-0.012274711821189518 -0.41792803374081067 -0.47104679443655795 230 147 184
-0.05160637573085379 -0.5256951993300323 0.12332447762622309 206 237 73
0.30399625470319863 -0.4198162235865957 -0.6841225476691953 100 229 212
0.7806397994779035 -0.4701351179786024 -0.32997135255116883 101 119 182
0.10650858371494368 0.2996846862611485 -0.1281584468448214 15 93 52
0.23039716385062778 -0.2004930789482005 -0.48558533241219537 132 196 33
0.7131584303935137 1.244220807165564 0.8479847665070847 251 119 197
0.07090331957672723 0.9167176809078392 0.17785175786199223 89 124 246
-0.23864313520161468 0.23318978719098943 -0.04719625320559248 176 6 59
-0.49155909187285385 -0.449160985716008 0.40102586937025797 66 244 196
-0.9232659908323365 0.3020683702213421 -0.8147918013742191 173 17 204
-1.060588222451218 -0.9194233018792493 0.9833819859673699 46 37 221
-0.098116982471771 0.043291590082709545 0.7096275229554756 1 16 234
0.4670898742498624 -0.6957526347021098 0.43450317140938055 64 197 167
0.09209063235177314 -0.1708390487979403 0.012145457068890194 28 202 52
0.639906010314011 -0.4429832410204764 0.20044283955206058 177 97 138
-0.004828618266454173 -0.8985823076978092 -0.4011265858654054 241 66 76
0.09660677661684823 0.6486710445464453 0.5006655086733648 74 94 147
0.2986062522017125 -0.4076378305682293 0.9006069954042675 204 227 15
0.10762023381980573 -0.5031827608392752 -0.0914524904284755 165 151 153
0.44812421267807967 0.0038087491590790535 0.4434323432913805 202 239 190
0.5518469787310751 0.20026534229935308 -0.428851311523447 43 243 220
0.06772733159499027 0.022582927969415502 0.9296731669258141 76 31 205
-0.813160968913415 -0.06741122554717703 -0.29204677339745966 248 32 166
0.16755281009799944 -1.218782179599678 0.55746227974514 2 9 200
0.006874243667766828 -0.9223505818140231 -0.18055656736993306 207 89 114
0.3044811708272621 -0.7957239377290157 0.0016111082215778496 198 218 70
-0.528736823900765 -0.27799251593948365 0.013369191337318466 199 51 114
0.09172512679078815 -0.23537124909136362 0.13639819476513207 183 174 128
0.40898880362740286 -0.1394571375516199 0.7157838787246454 170 12 73
0.7311070853902097 -0.21435103279291443 -0.31892027823679214 55 20 52
-0.8320864925830868 -0.06328466581969493 -0.1817188900580257 219 228 135
0.3895256100664958 -0.7548308030341494 -0.13869569587155492 123 118 244
0.4843721965555727 -0.36517854777897996 -0.38118076836380466 239 55 24
-0.7234701673779043 1.3102869230091196 -0.3737365890326897 13 91 106
-0.6501734161091696 -0.40192520201576 -0.38714754024340226 63 234 213
-0.13469488922562015 0.4126861160437574 -0.14916158449791686 189 123 226
-0.46141165749841395 -0.7256692490955126 0.010928679109935686 241 226 66
0.02126953701489536 0.7654661755144123 0.04622386773490429 220 89 31
-0.04950415564203869 -0.5253269182937448 -0.15297628754919596 189 206 251
-0.21923722901730303 -0.18508208225685127 -0.4796276963202941 122 64 16
0.2691648016380884 -0.07122270875468469 -0.1001767400024937 105 147 126
-0.8570230580244982 0.24682204376243194 0.24350766299018972 41 94 234
-0.41956470142110686 0.49506069193959684 -0.6823791150412162 117 130 120
-0.010934954394539937 -0.13560366994508194 -0.6585873944028972 98 15 58
0.09485130603999788 0.8512850761208957 0.03381711503345988 127 149 121
-0.23151087705452547 0.22351207844283913 0.05285999773357747 92 204 177
0.013881065812750743 -0.21277110638572402 0.7109877796462324 241 7 189
0.2281816817403927 -0.2643353294677443 -0.054001918390478965 15 74 233
-0.3704333521020363 -0.3041455750407475 -0.3203628620950995 197 168 101
-0.5671557968611137 0.3886384818839777 -0.14552073163651288 12 66 122
0.27706378916338487 -0.33506294886364824 -0.030181247196169325 107 116 7
-0.3555202983955556 0.35983408526866584 -0.12420965335251911 161 114 4
-0.3654367929756929 -0.8208516144048921 0.1378332746703872 239 50 43
-0.35419252616905356 -0.007889608560497587 -0.2458650540067638 192 88 155
0.47709479044938247 0.272072376179004 0.22360604372741574 1 110 6
-0.3080605616617396 0.23314502177509475 0.8574158043380214 53 49 247
-0.416093017075031 0.08616956961459439 -0.824608487208566 77 214 107
0.6992810460627678 -0.1989560492954207 0.39128944042098873 219 169 1
-0.8616141253581615 0.8987696935629523 -0.17843576401279923 28 7 23
0.27282866173501374 0.0754091031662969 -0.1277353930938847 56 200 187
0.8428961513296518 -0.8240231031830899 0.14935682999600447 62 99 219
0.45532283611498514 -0.014928060818183132 -0.0590853921832959 18 144 29
-0.07134385603673252 -0.613818210205204 0.019063692047467325 253 112 233
0.25635876173619937 0.03429961374033026 -0.1361380505725403 39 252 15
-0.24486251118651337 -0.13964833463918608 0.6288721087480191 15 209 198
-1.0433174897102713 0.020035728273887728 -0.16387745864820838 63 62 120
0.7279039759184217 0.027746112721901386 0.742462799349977 240 159 212
-1.0619450090227796 0.2297924524170281 0.14002893001884006 221 34 147
0.695266983536969 -0.8206743044115146 -0.0775179040591629 251 24 113
0.033030130893246294 -0.24789774727260466 0.6082888568714702 195 252 30
-0.1693410927226988 1.0173812720105768 0.5270889544694614 103 192 151
0.4754168485018998 0.27964949069544215 -0.531847795512774 224 26 138
-0.21554816875537855 0.2863756834286079 0.33877851679385856 155 207 215
0.6535919225406287 -0.23372050481295317 -0.4300766924623316 120 154 2
0.4295520963927653 -0.40481328802005634 0.4366559180352061 175 3 165
0.5998680882075189 0.22807651791352768 -0.17878951598429896 129 243 41
0.020541113071939784 0.29673295980161957 0.005092759356036732 97 218 131
1.0991481693352463 -0.4953354653135746 -0.5013342936848955 207 129 174
-0.4884476933676626 -0.2947899612726078 -1.0894657600974547 224 13 224
-0.3148252134700906 -0.3266423509639445 0.03925701258708814 45 192 144
0.20890029160304072 -0.6201081682038851 0.45002712138203615 84 244 214
0.9011211148952736 -0.10414255154749817 0.7871856187377858 72 51 91
0.09949474720259387 0.9943659592976956 0.5586417328440951 84 40 239
-0.7819523174198831 0.009313685330677729 0.5271624874520389 226 223 116
0.015273290520308444 -0.018441765422533472 0.634882375157152 201 91 219
-0.354927091073052 0.008757806639109168 0.16181288230455934 231 137 121
-0.16689548017678207 -0.010064551938768738 0.38751163161208513 135 60 23
0.21641881074999697 -0.40435876598976683 -0.5520619928996309 98 199 173
-0.3945510901283251 0.0006242278942433027 -0.07996989387852141 214 115 31
-0.4159787466085624 -0.2990752262582429 -0.7600196425960318 133 10 109
0.20892685160866298 -0.02000936267581646 -0.6298936717026351 51 215 32
0.01431025209389141 0.6713110052551766 -0.3699679264826298 121 98 215
0.6575688328604862 -0.1617287362417119 0.09891408392493391 143 121 152
0.04887540121109264 0.7007617080026227 0.07921692339276586 59 132 89
-0.5709507096019233 -0.6554851852206062 -0.7664605267150639 27 201 92
-0.8559850820471107 0.023067529477842463 -0.47918724011328073 71 0 9
-0.04040580647187048 -0.3519295179952233 -0.3853921503532826 64 84 178
-0.24042267043636456 0.3517927773216942 0.46457257388434553 93 203 149
0.1855862763245196 -0.4949112747735596 0.3218156377266692 89 40 0
0.3444483333039661 0.13732360180622227 -0.30181021800954533 97 103 92
0.35442978768357014 0.21140928733833073 -1.558428295799563 204 24 29
0.32222601670552115 -0.9568713354307535 0.33178078829569074 59 131 185
-0.07703619921241765 0.596805840374599 -0.04908060560296527 230 68 32
-0.4433071300280562 -0.07367683229142183 0.5299031474668873 129 76 251
0.013123308930793692 -0.057167579936188394 0.37177675775416846 10 48 192
0.10517968331490646 -0.002963702916615903 0.6830300342016657 98 143 207
0.7775570160295339 0.3066631131643506 -0.14297957574258646 170 153 173
0.7484554967604136 0.5915597786658535 0.3594485827641458 16 24 154
-0.6080382903729304 0.07033595165398046 -0.37183608735043655 93 253 209
-0.07950612577717966 0.12002846464835935 0.05007970404531174 236 46 159
-0.23758755291462424 0.6364768744599554 -0.8480656334157716 7 187 10
0.3650917655648072 -0.928741635797269 0.19129906836173144 171 54 150
-0.4434521631419378 0.4391518788662652 0.04322626200379673 70 5 174
0.12385318923341215 -0.5091396627834257 -0.32728506749879194 114 184 14
0.10360869670547668 0.291784963454652 1.4645481208819306 135 13 36
0.11142916155174336 0.48801876268446287 -0.7784669662546303 200 58 23
-0.6649459306670314 -0.177747387304226 -0.5987138478192832 36 36 215
0.7431996267331923 -0.20510934639016437 0.6910909441965692 150 202 65
0.7433912370428154 0.021389859941783447 0.2508998769038195 159 229 136
-0.02804973667045145 0.26921850017726934 0.24167092589028588 222 55 246
-0.061824812946015356 0.25248499073142017 0.8618481378336309 20 194 51
0.35650811485546885 0.16289980682031277 0.06238476052160621 29 142 80
-0.5063365618842955 -0.5136484385377312 0.1616782657401293 56 111 252
-0.6846955620235786 -0.3831637994817916 0.6407556701820666 161 71 251
0.957114848531407 -0.8329780383988592 0.813324781150791 71 183 67
-0.10571914542277831 -0.007502543515682403 -0.05670581532136698 197 164 146
0.5402720635127436 -0.8038382895215885 0.2280818056775667 117 61 155
-0.47243509869400546 0.2853942646907869 0.7713981691465259 222 7 186
-0.00020866320631008337 0.18707754298540127 0.20477588911884567 224 157 65
-0.39979674983524505 0.7558196749421592 0.8532341236304944 89 190 93
0.3508916860585145 0.03664271600382273 -0.23094690767714232 2 26 72
-0.31324511157454377 0.8554182912733278 0.7072075213645118 100 92 205
-0.031830744394774714 -0.7899652648355618 -1.4160059349544936 56 104 207
-0.5417133301321398 -0.0653101979975597 0.7003445172215007 202 52 92
-0.3258281045288904 0.25240772817025087 0.6515904808242162 39 22 141
0.06426815842802408 -0.07122393439442067 -0.654381757119304 81 130 149
-0.6012376541022164 0.20804981720791166 -0.10045376660046336 154 239 59
0.06126565882665077 -0.02363885784812357 0.33207202467932523 229 13 7
-0.3923437057147226 -0.16779032179158346 0.948091114316572 27 164 135
-0.39989306919288536 -0.14078771540005106 -0.2946933509892847 41 37 135
0.2223906812036251 0.5111961612210347 -0.24910580929305481 244 46 66
-0.21570717055234262 -0.13949080265151514 0.26491689173747884 30 151 236
-0.3696976512550977 -0.18797998298562957 -1.1860969357565077 60 120 231
-0.6908725047474926 -0.05622187800964411 0.4489320866015607 180 134 163
0.1475378916509312 -0.5493842283336497 -0.700128104063971 186 185 123
0.08734004644908437 -0.8264018211264218 0.5329634093584444 71 52 234
0.03194809582508913 -0.803660079617029 -0.48297692942093484 14 85 175
-0.3621556596155614 -0.38659625511171936 -0.7449665041107462 153 110 26
-0.4373312609944226 -0.3422007780702131 -0.35564287780521914 35 177 123
0.5639783124666903 0.052413901413607286 -0.4966286087187762 86 95 109
-0.16731080297706102 -0.4397785486556921 -0.1500033295058785 174 153 17
0.4377545765706916 0.1261353903060627 1.1428005907640333 40 17 8
0.1879637128837401 -0.4567972549885535 0.4048703654072237 197 216 106
0.5399656085712679 0.5470834957219719 -0.5471204765175457 247 220 219
-0.07381870725741875 0.5659059784142263 -0.8423644794369706 93 243 190
-0.24970838051101915 -0.7134688427134958 -0.4662851149485066 90 226 1
-0.5062285763719031 0.6252849162717175 -0.1172690174543752 145 132 20
-0.4316777906708913 -0.5178028656922473 0.07083358243576515 219 71 95
-0.005567813670333554 0.6720371873367135 0.2500083479286513 121 208 151
-0.7158988890325187 -0.31449035379563417 0.5350362560354885 143 92 71
-0.3105413488506887 0.8672860874618545 -0.5491447156623733 121 65 86
0.2863066765203951 -0.43060777669932077 -0.2547975664731787 112 215 237
0.5492908241155733 -0.06353358141925847 0.40672612255705354 211 134 181
0.23664529745739973 0.3769328417811504 -0.44409410554275663 85 117 239
-0.11078719910200034 0.2121263090504351 -0.4245364363468302 90 44 120
0.8147500216161643 -0.3886140210775672 -0.1500017884688976 166 32 31
-0.5032795323971188 -1.0716540326193442 0.898459261287464 77 231 172
-0.10216946845152362 -0.22395741920777013 -0.09935753083539933 56 153 168
0.7099319860982178 -0.48255330403220864 0.3397839328825412 133 193 6
-0.21189412427473817 -0.2983354277691549 0.2835291062600912 48 246 126
0.49412028687134846 -0.25695147513995775 -0.38442457983740497 19 78 0
-0.5845478736610136 0.5517518833641878 -0.287627997403059 147 254 150
-0.9245653636377256 0.7049760691980731 -0.6849297509764711 155 83 60
0.3897302656295307 0.09171432333376237 0.1439577161076392 129 229 2
-0.29218763765566097 0.18279573011231803 -0.8338899464421187 145 109 158
0.2940188743699064 0.7785050207660801 0.4420135987131631 214 114 55
-1.0097700426933607 -0.4921045011364241 -0.09389746098740345 96 38 21
0.24346865246996632 -0.05332633683011255 -0.2466071935552489 95 159 67
0.2976501538461464 0.5820758831124832 -0.11614700359329867 233 175 175
0.3644649336926197 -1.2895253725947373 -0.4687546930543646 176 0 207
-0.16062946852900475 -0.24428311037731287 0.16639910870222738 233 4 152
